778

  -14.350730  -16.086680  -16.074780
  -14.350730  -16.086680  -11.788170
  -14.350730  -14.849240  -13.931470
  -14.350730  -13.611810  -16.074780
  -14.350730  -13.611810  -11.788170
  -14.350730  -12.374370   -9.644870
  -14.855910  -14.849240  -15.360340
  -16.371450  -14.849240  -15.360340
  -16.701900  -14.174220  -16.004660
  -13.845540  -14.849240  -12.502600
  -14.855910  -12.374370  -11.073730
  -16.371450  -12.374370  -11.073730
  -16.701900  -11.455170  -10.912850
  -13.845540  -12.374370   -8.216000
  -14.350730  -11.136930  -16.074780
  -14.350730  -11.136930  -11.788170
  -14.350730   -9.899490  -13.931470
  -14.350730   -8.662060  -16.074780
  -14.350730   -8.662060  -11.788170
  -14.350730   -7.424620   -9.644870
  -14.855910   -9.899490  -15.360340
  -16.371450   -9.899490  -15.360340
  -16.701900   -9.596220  -16.242850
  -13.845540   -9.899490  -12.502600
  -14.855910   -7.424620  -11.073730
  -16.371450   -7.424620  -11.073730
  -16.701900   -7.335310  -10.144850
  -13.845540   -7.424620   -8.216000
  -14.350730   -6.187180  -16.074780
  -14.350730   -6.187180  -11.788170
  -14.350730   -4.949750  -13.931470
  -14.350730   -3.712310  -16.074780
  -14.350730   -3.712310  -11.788170
  -14.350730   -2.474870   -9.644870
  -14.855910   -4.949750  -15.360340
  -16.371450   -4.949750  -15.360340
  -16.701900   -5.659100  -15.966660
  -13.845540   -4.949750  -12.502600
  -14.855910   -2.474870  -11.073730
  -16.371450   -2.474870  -11.073730
  -16.701900   -3.331790  -11.443180
  -13.845540   -2.474870   -8.216000
  -14.350730   -1.237440  -16.074780
  -14.350730   -1.237440  -11.788170
  -14.350730    0.000000  -13.931470
  -14.350730    1.237440  -16.074780
  -14.350730    1.237440  -11.788170
  -14.350730    2.474870   -9.644870
  -14.855910    0.000000  -15.360340
  -16.371450    0.000000  -15.360340
  -16.701900    0.113150  -16.286620
  -13.845540    0.000000  -12.502600
  -14.855910    2.474870  -11.073730
  -16.371450    2.474870  -11.073730
  -16.701900    1.863730  -10.368540
  -13.845540    2.474870   -8.216000
  -14.350730    3.712310  -16.074780
  -14.350730    3.712310  -11.788170
  -14.350730    4.949750  -13.931470
  -14.350730    6.187180  -16.074780
  -14.350730    6.187180  -11.788170
  -14.350730    7.424620   -9.644870
  -14.855910    4.949750  -15.360340
  -16.371450    4.949750  -15.360340
  -16.701900    5.866630  -15.533920
  -13.845540    4.949750  -12.502600
  -14.855910    7.424620  -11.073730
  -16.371450    7.424620  -11.073730
  -16.701900    8.352170  -10.971460
  -13.845540    7.424620   -8.216000
  -14.350730    8.662060  -16.074780
  -14.350730    8.662060  -11.788170
  -14.350730    9.899490  -13.931470
  -14.350730   11.136930  -16.074780
  -14.350730   11.136930  -11.788170
  -14.350730   12.374370   -9.644870
  -14.855910    9.899490  -15.360340
  -16.371450    9.899490  -15.360340
  -16.701900    9.272770  -16.051730
  -13.845540    9.899490  -12.502600
  -14.855910   12.374370  -11.073730
  -16.371450   12.374370  -11.073730
  -16.701900   11.911950  -11.884270
  -13.845540   12.374370   -8.216000
  -14.350730   13.611810  -16.074780
  -14.350730   13.611810  -11.788170
  -14.350730   14.849240  -13.931470
  -14.350730   16.086680  -16.074780
  -14.350730   16.086680  -11.788170
  -14.855910   14.849240  -15.360340
  -16.371450   14.849240  -15.360340
  -16.701900   14.604210  -14.459920
  -13.845540   14.849240  -12.502600
  -14.350730  -16.086680   -7.501560
  -14.350730  -16.086680   -3.214960
  -14.350730  -14.849240   -5.358260
  -14.350730  -13.611810   -7.501560
  -14.350730  -13.611810   -3.214960
  -14.350730  -12.374370   -1.071650
  -14.855910  -14.849240   -6.787130
  -16.371450  -14.849240   -6.787130
  -16.701900  -13.926280   -6.924730
  -13.845540  -14.849240   -3.929390
  -14.855910  -12.374370   -2.500520
  -16.371450  -12.374370   -2.500520
  -16.701900  -12.252470   -1.575350
  -13.845540  -12.374370    0.357220
  -14.350730  -11.136930   -7.501560
  -14.350730  -11.136930   -3.214960
  -14.350730   -9.899490   -5.358260
  -14.350730   -8.662060   -7.501560
  -14.350730   -8.662060   -3.214960
  -14.350730   -7.424620   -1.071650
  -14.855910   -9.899490   -6.787130
  -16.371450   -9.899490   -6.787130
  -16.701900   -9.509160   -5.939520
  -13.845540   -9.899490   -3.929390
  -14.855910   -7.424620   -2.500520
  -16.371450   -7.424620   -2.500520
  -16.701900   -8.355210   -2.431210
  -13.845540   -7.424620    0.357220
  -14.350730   -6.187180   -7.501560
  -14.350730   -6.187180   -3.214960
  -14.350730   -4.949750   -5.358260
  -14.350730   -3.712310   -7.501560
  -14.350730   -3.712310   -3.214960
  -14.350730   -2.474870   -1.071650
  -14.855910   -4.949750   -6.787130
  -16.371450   -4.949750   -6.787130
  -16.701900   -4.779850   -7.704700
  -13.845540   -4.949750   -3.929390
  -14.855910   -2.474870   -2.500520
  -16.371450   -2.474870   -2.500520
  -16.701900   -1.905080   -1.761510
  -13.845540   -2.474870    0.357220
  -14.350730   -1.237440   -7.501560
  -14.350730   -1.237440   -3.214960
  -14.350730    0.000000   -5.358260
  -14.350730    1.237440   -7.501560
  -14.350730    1.237440   -3.214960
  -14.350730    2.474870   -1.071650
  -14.855910    0.000000   -6.787130
  -16.371450    0.000000   -6.787130
  -16.701900    0.929410   -6.870760
  -13.845540    0.000000   -3.929390
  -14.855910    2.474870   -2.500520
  -16.371450    2.474870   -2.500520
  -16.701900    2.751970   -3.391600
  -13.845540    2.474870    0.357220
  -14.350730    3.712310   -7.501560
  -14.350730    3.712310   -3.214960
  -14.350730    4.949750   -5.358260
  -14.350730    6.187180   -7.501560
  -14.350730    6.187180   -3.214960
  -14.350730    7.424620   -1.071650
  -14.855910    4.949750   -6.787130
  -16.371450    4.949750   -6.787130
  -16.701900    5.050120   -7.714880
  -13.845540    4.949750   -3.929390
  -14.855910    7.424620   -2.500520
  -16.371450    7.424620   -2.500520
  -16.701900    7.247180   -3.416660
  -13.845540    7.424620    0.357220
  -14.350730    8.662060   -7.501560
  -14.350730    8.662060   -3.214960
  -14.350730    9.899490   -5.358260
  -14.350730   11.136930   -7.501560
  -14.350730   11.136930   -3.214960
  -14.350730   12.374370   -1.071650
  -14.855910    9.899490   -6.787130
  -16.371450    9.899490   -6.787130
  -16.701900   10.670390   -6.261270
  -13.845540    9.899490   -3.929390
  -14.855910   12.374370   -2.500520
  -16.371450   12.374370   -2.500520
  -16.701900   12.513010   -1.577710
  -13.845540   12.374370    0.357220
  -14.350730   13.611810   -7.501560
  -14.350730   13.611810   -3.214960
  -14.350730   14.849240   -5.358260
  -14.350730   16.086680   -7.501560
  -14.350730   16.086680   -3.214960
  -14.855910   14.849240   -6.787130
  -16.371450   14.849240   -6.787130
  -16.701900   14.739000   -5.860500
  -13.845540   14.849240   -3.929390
  -14.350730  -16.086680    1.071650
  -14.350730  -16.086680    5.358260
  -14.350730  -14.849240    3.214960
  -14.350730  -13.611810    1.071650
  -14.350730  -13.611810    5.358260
  -14.350730  -12.374370    7.501560
  -14.855910  -14.849240    1.786090
  -16.371450  -14.849240    1.786090
  -16.701900  -14.835350    2.719150
  -13.845540  -14.849240    4.643820
  -14.855910  -12.374370    6.072690
  -16.371450  -12.374370    6.072690
  -16.701900  -11.510320    5.720240
  -13.845540  -12.374370    8.930430
  -14.350730  -11.136930    1.071650
  -14.350730  -11.136930    5.358260
  -14.350730   -9.899490    3.214960
  -14.350730   -8.662060    1.071650
  -14.350730   -8.662060    5.358260
  -14.350730   -7.424620    7.501560
  -14.855910   -9.899490    1.786090
  -16.371450   -9.899490    1.786090
  -16.701900   -8.972000    1.888860
  -13.845540   -9.899490    4.643820
  -14.855910   -7.424620    6.072690
  -16.371450   -7.424620    6.072690
  -16.701900   -7.676200    6.971310
  -13.845540   -7.424620    8.930430
  -14.350730   -6.187180    1.071650
  -14.350730   -6.187180    5.358260
  -14.350730   -4.949750    3.214960
  -14.350730   -3.712310    1.071650
  -14.350730   -3.712310    5.358260
  -14.350730   -2.474870    7.501560
  -14.855910   -4.949750    1.786090
  -16.371450   -4.949750    1.786090
  -16.701900   -4.040740    1.575130
  -13.845540   -4.949750    4.643820
  -14.855910   -2.474870    6.072690
  -16.371450   -2.474870    6.072690
  -16.701900   -2.207770    5.178570
  -13.845540   -2.474870    8.930430
  -14.350730   -1.237440    1.071650
  -14.350730   -1.237440    5.358260
  -14.350730    0.000000    3.214960
  -14.350730    1.237440    1.071650
  -14.350730    1.237440    5.358260
  -14.350730    2.474870    7.501560
  -14.855910    0.000000    1.786090
  -16.371450    0.000000    1.786090
  -16.701900    0.590590    2.508580
  -13.845540    0.000000    4.643820
  -14.855910    2.474870    6.072690
  -16.371450    2.474870    6.072690
  -16.701900    1.761540    6.674320
  -13.845540    2.474870    8.930430
  -14.350730    3.712310    1.071650
  -14.350730    3.712310    5.358260
  -14.350730    4.949750    3.214960
  -14.350730    6.187180    1.071650
  -14.350730    6.187180    5.358260
  -14.350730    7.424620    7.501560
  -14.855910    4.949750    1.786090
  -16.371450    4.949750    1.786090
  -16.701900    4.919890    0.853400
  -13.845540    4.949750    4.643820
  -14.855910    7.424620    6.072690
  -16.371450    7.424620    6.072690
  -16.701900    6.542150    6.376090
  -13.845540    7.424620    8.930430
  -14.350730    8.662060    1.071650
  -14.350730    8.662060    5.358260
  -14.350730    9.899490    3.214960
  -14.350730   11.136930    1.071650
  -14.350730   11.136930    5.358260
  -14.350730   12.374370    7.501560
  -14.855910    9.899490    1.786090
  -16.371450    9.899490    1.786090
  -16.701900    9.611870    2.673820
  -13.845540    9.899490    4.643820
  -14.855910   12.374370    6.072690
  -16.371450   12.374370    6.072690
  -16.701900   11.449530    6.197100
  -13.845540   12.374370    8.930430
  -14.350730   13.611810    1.071650
  -14.350730   13.611810    5.358260
  -14.350730   14.849240    3.214960
  -14.350730   16.086680    1.071650
  -14.350730   16.086680    5.358260
  -14.855910   14.849240    1.786090
  -16.371450   14.849240    1.786090
  -16.701900   13.916080    1.790210
  -13.845540   14.849240    4.643820
  -14.350730  -16.086680    9.644870
  -14.350730  -16.086680   13.931470
  -14.350730  -14.849240   11.788170
  -14.350730  -13.611810    9.644870
  -14.350730  -13.611810   13.931470
  -14.350730  -12.374370   16.074780
  -14.855910  -14.849240   10.359300
  -16.371450  -14.849240   10.359300
  -16.701900  -13.999210    9.974270
  -13.845540  -14.849240   13.217040
  -14.855910  -12.374370   14.645910
  -16.371450  -12.374370   14.645910
  -16.701900  -11.567120   14.177770
  -14.350730  -11.136930    9.644870
  -14.350730  -11.136930   13.931470
  -14.350730   -9.899490   11.788170
  -14.350730   -8.662060    9.644870
  -14.350730   -8.662060   13.931470
  -14.350730   -7.424620   16.074780
  -14.855910   -9.899490   10.359300
  -16.371450   -9.899490   10.359300
  -16.701900   -9.201920   10.979130
  -13.845540   -9.899490   13.217040
  -14.855910   -7.424620   14.645910
  -16.371450   -7.424620   14.645910
  -16.701900   -6.544400   14.336050
  -14.350730   -6.187180    9.644870
  -14.350730   -6.187180   13.931470
  -14.350730   -4.949750   11.788170
  -14.350730   -3.712310    9.644870
  -14.350730   -3.712310   13.931470
  -14.350730   -2.474870   16.074780
  -14.855910   -4.949750   10.359300
  -16.371450   -4.949750   10.359300
  -16.701900   -5.588240    9.678770
  -13.845540   -4.949750   13.217040
  -14.855910   -2.474870   14.645910
  -16.371450   -2.474870   14.645910
  -16.701900   -3.098830   13.952020
  -14.350730   -1.237440    9.644870
  -14.350730   -1.237440   13.931470
  -14.350730    0.000000   11.788170
  -14.350730    1.237440    9.644870
  -14.350730    1.237440   13.931470
  -14.350730    2.474870   16.074780
  -14.855910    0.000000   10.359300
  -16.371450    0.000000   10.359300
  -16.701900   -0.863390   10.005250
  -13.845540    0.000000   13.217040
  -14.855910    2.474870   14.645910
  -16.371450    2.474870   14.645910
  -16.701900    1.546930   14.744470
  -14.350730    3.712310    9.644870
  -14.350730    3.712310   13.931470
  -14.350730    4.949750   11.788170
  -14.350730    6.187180    9.644870
  -14.350730    6.187180   13.931470
  -14.350730    7.424620   16.074780
  -14.855910    4.949750   10.359300
  -16.371450    4.949750   10.359300
  -16.701900    4.309980    9.679960
  -13.845540    4.949750   13.217040
  -14.855910    7.424620   14.645910
  -16.371450    7.424620   14.645910
  -16.701900    7.595980   13.728610
  -14.350730    8.662060    9.644870
  -14.350730    8.662060   13.931470
  -14.350730    9.899490   11.788170
  -14.350730   11.136930    9.644870
  -14.350730   11.136930   13.931470
  -14.350730   12.374370   16.074780
  -14.855910    9.899490   10.359300
  -16.371450    9.899490   10.359300
  -16.701900   10.438740    9.597710
  -13.845540    9.899490   13.217040
  -14.855910   12.374370   14.645910
  -16.371450   12.374370   14.645910
  -16.701900   13.222240   14.256140
  -14.350730   13.611810    9.644870
  -14.350730   13.611810   13.931470
  -14.350730   14.849240   11.788170
  -14.350730   16.086680    9.644870
  -14.350730   16.086680   13.931470
  -14.855910   14.849240   10.359300
  -16.371450   14.849240   10.359300
  -16.701900   15.779770   10.429430
  -13.845540   14.849240   13.217040
  -10.309270  -16.086680  -16.074780
  -10.309270  -16.086680  -11.788170
  -10.309270  -14.849240  -13.931470
  -10.309270  -13.611810  -16.074780
  -10.309270  -13.611810  -11.788170
  -10.309270  -12.374370   -9.644870
   -9.804090  -14.849240  -15.360340
   -8.288550  -14.849240  -15.360340
   -7.958100  -13.949660  -15.608440
  -10.814460  -14.849240  -12.502600
  -12.330000  -14.849240  -12.502600
   -9.804090  -12.374370  -11.073730
   -8.288550  -12.374370  -11.073730
   -7.958100  -11.507450  -11.419070
  -10.814460  -12.374370   -8.216000
  -12.330000  -12.374370   -8.216000
  -10.309270  -11.136930  -16.074780
  -10.309270  -11.136930  -11.788170
  -10.309270   -9.899490  -13.931470
  -10.309270   -8.662060  -16.074780
  -10.309270   -8.662060  -11.788170
  -10.309270   -7.424620   -9.644870
   -9.804090   -9.899490  -15.360340
   -8.288550   -9.899490  -15.360340
   -7.958100  -10.228890  -16.233440
  -10.814460   -9.899490  -12.502600
  -12.330000   -9.899490  -12.502600
   -9.804090   -7.424620  -11.073730
   -8.288550   -7.424620  -11.073730
   -7.958100   -6.540900  -10.774020
  -10.814460   -7.424620   -8.216000
  -12.330000   -7.424620   -8.216000
  -10.309270   -6.187180  -16.074780
  -10.309270   -6.187180  -11.788170
  -10.309270   -4.949750  -13.931470
  -10.309270   -3.712310  -16.074780
  -10.309270   -3.712310  -11.788170
  -10.309270   -2.474870   -9.644870
   -9.804090   -4.949750  -15.360340
   -8.288550   -4.949750  -15.360340
   -7.958100   -4.042380  -15.142420
  -10.814460   -4.949750  -12.502600
  -12.330000   -4.949750  -12.502600
   -9.804090   -2.474870  -11.073730
   -8.288550   -2.474870  -11.073730
   -7.958100   -1.911700  -10.329670
  -10.814460   -2.474870   -8.216000
  -12.330000   -2.474870   -8.216000
  -10.309270   -1.237440  -16.074780
  -10.309270   -1.237440  -11.788170
  -10.309270    0.000000  -13.931470
  -10.309270    1.237440  -16.074780
  -10.309270    1.237440  -11.788170
  -10.309270    2.474870   -9.644870
   -9.804090    0.000000  -15.360340
   -8.288550    0.000000  -15.360340
   -7.958100   -0.536530  -14.596840
  -10.814460    0.000000  -12.502600
  -12.330000    0.000000  -12.502600
   -9.804090    2.474870  -11.073730
   -8.288550    2.474870  -11.073730
   -7.958100    3.276490  -10.596020
  -10.814460    2.474870   -8.216000
  -12.330000    2.474870   -8.216000
  -10.309270    3.712310  -16.074780
  -10.309270    3.712310  -11.788170
  -10.309270    4.949750  -13.931470
  -10.309270    6.187180  -16.074780
  -10.309270    6.187180  -11.788170
  -10.309270    7.424620   -9.644870
   -9.804090    4.949750  -15.360340
   -8.288550    4.949750  -15.360340
   -7.958100    5.881830  -15.315350
  -10.814460    4.949750  -12.502600
  -12.330000    4.949750  -12.502600
   -9.804090    7.424620  -11.073730
   -8.288550    7.424620  -11.073730
   -7.958100    6.679710  -11.635790
  -10.814460    7.424620   -8.216000
  -12.330000    7.424620   -8.216000
  -10.309270    8.662060  -16.074780
  -10.309270    8.662060  -11.788170
  -10.309270    9.899490  -13.931470
  -10.309270   11.136930  -16.074780
  -10.309270   11.136930  -11.788170
  -10.309270   12.374370   -9.644870
   -9.804090    9.899490  -15.360340
   -8.288550    9.899490  -15.360340
   -7.958100   10.826550  -15.253730
  -10.814460    9.899490  -12.502600
  -12.330000    9.899490  -12.502600
   -9.804090   12.374370  -11.073730
   -8.288550   12.374370  -11.073730
   -7.958100   11.563460  -11.535510
  -10.814460   12.374370   -8.216000
  -12.330000   12.374370   -8.216000
  -10.309270   13.611810  -16.074780
  -10.309270   13.611810  -11.788170
  -10.309270   14.849240  -13.931470
  -10.309270   16.086680  -16.074780
  -10.309270   16.086680  -11.788170
   -9.804090   14.849240  -15.360340
   -8.288550   14.849240  -15.360340
   -7.958100   14.032300  -14.909330
  -10.814460   14.849240  -12.502600
  -12.330000   14.849240  -12.502600
  -10.309270  -16.086680   -7.501560
  -10.309270  -16.086680   -3.214960
  -10.309270  -14.849240   -5.358260
  -10.309270  -13.611810   -7.501560
  -10.309270  -13.611810   -3.214960
  -10.309270  -12.374370   -1.071650
   -9.804090  -14.849240   -6.787130
   -8.288550  -14.849240   -6.787130
   -7.958100  -14.955690   -7.714200
  -10.814460  -14.849240   -3.929390
  -12.330000  -14.849240   -3.929390
   -9.804090  -12.374370   -2.500520
   -8.288550  -12.374370   -2.500520
   -7.958100  -12.234100   -1.577960
  -10.814460  -12.374370    0.357220
  -12.330000  -12.374370    0.357220
  -10.309270  -11.136930   -7.501560
  -10.309270  -11.136930   -3.214960
  -10.309270   -9.899490   -5.358260
  -10.309270   -8.662060   -7.501560
  -10.309270   -8.662060   -3.214960
  -10.309270   -7.424620   -1.071650
   -9.804090   -9.899490   -6.787130
   -8.288550   -9.899490   -6.787130
   -7.958100   -9.593300   -5.905630
  -10.814460   -9.899490   -3.929390
  -12.330000   -9.899490   -3.929390
   -9.804090   -7.424620   -2.500520
   -8.288550   -7.424620   -2.500520
   -7.958100   -8.356670   -2.454790
  -10.814460   -7.424620    0.357220
  -12.330000   -7.424620    0.357220
  -10.309270   -6.187180   -7.501560
  -10.309270   -6.187180   -3.214960
  -10.309270   -4.949750   -5.358260
  -10.309270   -3.712310   -7.501560
  -10.309270   -3.712310   -3.214960
  -10.309270   -2.474870   -1.071650
   -9.804090   -4.949750   -6.787130
   -8.288550   -4.949750   -6.787130
   -7.958100   -4.843250   -7.714200
  -10.814460   -4.949750   -3.929390
  -12.330000   -4.949750   -3.929390
   -9.804090   -2.474870   -2.500520
   -8.288550   -2.474870   -2.500520
   -7.958100   -1.870360   -3.211410
  -10.814460   -2.474870    0.357220
  -12.330000   -2.474870    0.357220
  -10.309270   -1.237440   -7.501560
  -10.309270   -1.237440   -3.214960
  -10.309270    0.000000   -5.358260
  -10.309270    1.237440   -7.501560
  -10.309270    1.237440   -3.214960
  -10.309270    2.474870   -1.071650
   -9.804090    0.000000   -6.787130
   -8.288550    0.000000   -6.787130
   -7.958100   -0.767350   -6.256120
  -10.814460    0.000000   -3.929390
  -12.330000    0.000000   -3.929390
   -9.804090    2.474870   -2.500520
   -8.288550    2.474870   -2.500520
   -7.958100    2.943890   -1.693780
  -10.814460    2.474870    0.357220
  -12.330000    2.474870    0.357220
  -10.309270    3.712310   -7.501560
  -10.309270    3.712310   -3.214960
  -10.309270    4.949750   -5.358260
  -10.309270    6.187180   -7.501560
  -10.309270    6.187180   -3.214960
  -10.309270    7.424620   -1.071650
   -9.804090    4.949750   -6.787130
   -8.288550    4.949750   -6.787130
   -7.958100    4.110450   -6.379230
  -10.814460    4.949750   -3.929390
  -12.330000    4.949750   -3.929390
   -9.804090    7.424620   -2.500520
   -8.288550    7.424620   -2.500520
   -7.958100    6.532220   -2.773330
  -10.814460    7.424620    0.357220
  -12.330000    7.424620    0.357220
  -10.309270    8.662060   -7.501560
  -10.309270    8.662060   -3.214960
  -10.309270    9.899490   -5.358260
  -10.309270   11.136930   -7.501560
  -10.309270   11.136930   -3.214960
  -10.309270   12.374370   -1.071650
   -9.804090    9.899490   -6.787130
   -8.288550    9.899490   -6.787130
   -7.958100    9.317210   -7.516330
  -10.814460    9.899490   -3.929390
  -12.330000    9.899490   -3.929390
   -9.804090   12.374370   -2.500520
   -8.288550   12.374370   -2.500520
   -7.958100   11.973270   -1.657950
  -10.814460   12.374370    0.357220
  -12.330000   12.374370    0.357220
  -10.309270   13.611810   -7.501560
  -10.309270   13.611810   -3.214960
  -10.309270   14.849240   -5.358260
  -10.309270   16.086680   -7.501560
  -10.309270   16.086680   -3.214960
   -9.804090   14.849240   -6.787130
   -8.288550   14.849240   -6.787130
   -7.958100   14.586070   -5.891840
  -10.814460   14.849240   -3.929390
  -12.330000   14.849240   -3.929390
  -10.309270  -16.086680    1.071650
  -10.309270  -16.086680    5.358260
  -10.309270  -14.849240    3.214960
  -10.309270  -13.611810    1.071650
  -10.309270  -13.611810    5.358260
  -10.309270  -12.374370    7.501560
   -9.804090  -14.849240    1.786090
   -8.288550  -14.849240    1.786090
   -7.958100  -15.026790    0.869960
  -10.814460  -14.849240    4.643820
  -12.330000  -14.849240    4.643820
   -9.804090  -12.374370    6.072690
   -8.288550  -12.374370    6.072690
   -7.958100  -11.636970    5.500820
  -10.814460  -12.374370    8.930430
  -12.330000  -12.374370    8.930430
  -10.309270  -11.136930    1.071650
  -10.309270  -11.136930    5.358260
  -10.309270   -9.899490    3.214960
  -10.309270   -8.662060    1.071650
  -10.309270   -8.662060    5.358260
  -10.309270   -7.424620    7.501560
   -9.804090   -9.899490    1.786090
   -8.288550   -9.899490    1.786090
   -7.958100  -10.715620    1.333590
  -10.814460   -9.899490    4.643820
  -12.330000   -9.899490    4.643820
   -9.804090   -7.424620    6.072690
   -8.288550   -7.424620    6.072690
   -7.958100   -6.805560    6.770950
  -10.814460   -7.424620    8.930430
  -12.330000   -7.424620    8.930430
  -10.309270   -6.187180    1.071650
  -10.309270   -6.187180    5.358260
  -10.309270   -4.949750    3.214960
  -10.309270   -3.712310    1.071650
  -10.309270   -3.712310    5.358260
  -10.309270   -2.474870    7.501560
   -9.804090   -4.949750    1.786090
   -8.288550   -4.949750    1.786090
   -7.958100   -5.064640    2.712150
  -10.814460   -4.949750    4.643820
  -12.330000   -4.949750    4.643820
   -9.804090   -2.474870    6.072690
   -8.288550   -2.474870    6.072690
   -7.958100   -2.092670    5.221390
  -10.814460   -2.474870    8.930430
  -12.330000   -2.474870    8.930430
  -10.309270   -1.237440    1.071650
  -10.309270   -1.237440    5.358260
  -10.309270    0.000000    3.214960
  -10.309270    1.237440    1.071650
  -10.309270    1.237440    5.358260
  -10.309270    2.474870    7.501560
   -9.804090    0.000000    1.786090
   -8.288550    0.000000    1.786090
   -7.958100   -0.851580    2.167670
  -10.814460    0.000000    4.643820
  -12.330000    0.000000    4.643820
   -9.804090    2.474870    6.072690
   -8.288550    2.474870    6.072690
   -7.958100    1.737730    5.500480
  -10.814460    2.474870    8.930430
  -12.330000    2.474870    8.930430
  -10.309270    3.712310    1.071650
  -10.309270    3.712310    5.358260
  -10.309270    4.949750    3.214960
  -10.309270    6.187180    1.071650
  -10.309270    6.187180    5.358260
  -10.309270    7.424620    7.501560
   -9.804090    4.949750    1.786090
   -8.288550    4.949750    1.786090
   -7.958100    5.866740    1.613110
  -10.814460    4.949750    4.643820
  -12.330000    4.949750    4.643820
   -9.804090    7.424620    6.072690
   -8.288550    7.424620    6.072690
   -7.958100    8.167780    6.637070
  -10.814460    7.424620    8.930430
  -12.330000    7.424620    8.930430
  -10.309270    8.662060    1.071650
  -10.309270    8.662060    5.358260
  -10.309270    9.899490    3.214960
  -10.309270   11.136930    1.071650
  -10.309270   11.136930    5.358260
  -10.309270   12.374370    7.501560
   -9.804090    9.899490    1.786090
   -8.288550    9.899490    1.786090
   -7.958100    9.254450    2.460410
  -10.814460    9.899490    4.643820
  -12.330000    9.899490    4.643820
   -9.804090   12.374370    6.072690
   -8.288550   12.374370    6.072690
   -7.958100   11.445940    5.978730
  -10.814460   12.374370    8.930430
  -12.330000   12.374370    8.930430
  -10.309270   13.611810    1.071650
  -10.309270   13.611810    5.358260
  -10.309270   14.849240    3.214960
  -10.309270   16.086680    1.071650
  -10.309270   16.086680    5.358260
   -9.804090   14.849240    1.786090
   -8.288550   14.849240    1.786090
   -7.958100   15.766320    1.958620
  -10.814460   14.849240    4.643820
  -12.330000   14.849240    4.643820
  -10.309270  -16.086680    9.644870
  -10.309270  -16.086680   13.931470
  -10.309270  -14.849240   11.788170
  -10.309270  -13.611810    9.644870
  -10.309270  -13.611810   13.931470
  -10.309270  -12.374370   16.074780
   -9.804090  -14.849240   10.359300
   -8.288550  -14.849240   10.359300
   -7.958100  -14.415050   11.185300
  -10.814460  -14.849240   13.217040
  -12.330000  -14.849240   13.217040
   -9.804090  -12.374370   14.645910
   -8.288550  -12.374370   14.645910
   -7.958100  -11.466110   14.431740
  -10.309270  -11.136930    9.644870
  -10.309270  -11.136930   13.931470
  -10.309270   -9.899490   11.788170
  -10.309270   -8.662060    9.644870
  -10.309270   -8.662060   13.931470
  -10.309270   -7.424620   16.074780
   -9.804090   -9.899490   10.359300
   -8.288550   -9.899490   10.359300
   -7.958100   -9.824220    9.429170
  -10.814460   -9.899490   13.217040
  -12.330000   -9.899490   13.217040
   -9.804090   -7.424620   14.645910
   -8.288550   -7.424620   14.645910
   -7.958100   -8.354490   14.567510
  -10.309270   -6.187180    9.644870
  -10.309270   -6.187180   13.931470
  -10.309270   -4.949750   11.788170
  -10.309270   -3.712310    9.644870
  -10.309270   -3.712310   13.931470
  -10.309270   -2.474870   16.074780
   -9.804090   -4.949750   10.359300
   -8.288550   -4.949750   10.359300
   -7.958100   -4.643920    9.477670
  -10.814460   -4.949750   13.217040
  -12.330000   -4.949750   13.217040
   -9.804090   -2.474870   14.645910
   -8.288550   -2.474870   14.645910
   -7.958100   -2.045950   15.474660
  -10.309270   -1.237440    9.644870
  -10.309270   -1.237440   13.931470
  -10.309270    0.000000   11.788170
  -10.309270    1.237440    9.644870
  -10.309270    1.237440   13.931470
  -10.309270    2.474870   16.074780
   -9.804090    0.000000   10.359300
   -8.288550    0.000000   10.359300
   -7.958100    0.865530   10.708100
  -10.814460    0.000000   13.217040
  -12.330000    0.000000   13.217040
   -9.804090    2.474870   14.645910
   -8.288550    2.474870   14.645910
   -7.958100    1.960920   15.424790
  -10.309270    3.712310    9.644870
  -10.309270    3.712310   13.931470
  -10.309270    4.949750   11.788170
  -10.309270    6.187180    9.644870
  -10.309270    6.187180   13.931470
  -10.309270    7.424620   16.074780
   -9.804090    4.949750   10.359300
   -8.288550    4.949750   10.359300
   -7.958100    4.861280    9.430340
  -10.814460    4.949750   13.217040
  -12.330000    4.949750   13.217040
   -9.804090    7.424620   14.645910
   -8.288550    7.424620   14.645910
   -7.958100    6.577530   14.254450
  -10.309270    8.662060    9.644870
  -10.309270    8.662060   13.931470
  -10.309270    9.899490   11.788170
  -10.309270   11.136930    9.644870
  -10.309270   11.136930   13.931470
  -10.309270   12.374370   16.074780
   -9.804090    9.899490   10.359300
   -8.288550    9.899490   10.359300
   -7.958100    9.569490    9.486430
  -10.814460    9.899490   13.217040
  -12.330000    9.899490   13.217040
   -9.804090   12.374370   14.645910
   -8.288550   12.374370   14.645910
   -7.958100   12.099250   15.537600
  -10.309270   13.611810    9.644870
  -10.309270   13.611810   13.931470
  -10.309270   14.849240   11.788170
  -10.309270   16.086680    9.644870
  -10.309270   16.086680   13.931470
   -9.804090   14.849240   10.359300
   -8.288550   14.849240   10.359300
   -7.958100   14.365760   11.157450
  -10.814460   14.849240   13.217040
  -12.330000   14.849240   13.217040
